# .PCD v0.7 - Point Cloud Data file format
VERSION 0.7
FIELDS x y z
SIZE 4 4 4
TYPE F F F
COUNT 1 1 1
WIDTH 1443
HEIGHT 1
VIEWPOINT 0 0 0 1 0 0 0
POINTS 1443
DATA ascii
0.024778025 -1.2115793 2.1108117
0.025084376 -1.2115794 2.0750904
0.025397247 -1.2115794 2.0386088
0.025716873 -1.2115798 2.0013397
0.026043471 -1.2115799 1.9632574
0.026377287 -1.2115798 1.9243333
0.026718587 -1.2115796 1.8845369
0.027067633 -1.2115797 1.843837
0.027424714 -1.2115802 1.8022006
0.027790103 -1.2115802 1.759595
0.028164122 -1.2115802 1.7159834
0.028547097 -1.2115803 1.6713274
0.02893937 -1.2115802 1.6255872
0.020066818 -1.2245417 2.5706322
0.020032931 -1.2092314 2.5747347
0.022171438 -1.2232821 2.3158388
0.022307381 -1.2165793 2.2993808
0.022477068 -1.2115785 2.2788379
0.022743626 -1.2115785 2.2465675
0.023015525 -1.2115785 2.2136502
0.023292935 -1.2115786 2.1800659
0.02357604 -1.2115782 2.1457922
0.023865025 -1.2115784 2.1108062
0.024160085 -1.2115784 2.0750852
0.024461433 -1.2115786 2.0386028
0.024769275 -1.2115787 2.0013344
0.02508384 -1.2115788 1.9632519
0.025405359 -1.2115788 1.9243276
0.025734078 -1.2115784 1.8845314
0.026070263 -1.2115786 1.8438314
0.02641418 -1.2115787 1.8021955
0.026766112 -1.211579 1.7595893
0.027126346 -1.2115788 1.715978
0.027495217 -1.2115793 1.6713213
0.027873034 -1.2115791 1.6255811
0.012350526 -1.2247123 2.5702422
0.012329671 -1.2094001 2.5743451
0.013644626 -1.2233423 2.3156497
0.013728286 -1.216639 2.299191
0.013831996 -1.211575 2.2787879
0.013996028 -1.2115748 2.2465174
0.014163351 -1.2115749 2.2135994
0.014334063 -1.2115749 2.1800146
0.014508284 -1.2115748 2.1457398
0.014686118 -1.2115747 2.1107538
0.014867695 -1.2115749 2.0750315
0.015053139 -1.2115752 2.0385485
0.015242578 -1.211575 2.0012798
0.015436154 -1.2115752 1.9631969
0.015634011 -1.2115753 1.9242716
0.015836302 -1.2115748 1.8844745
0.016043181 -1.2115748 1.8437746
0.01625482 -1.2115749 1.8021381
0.016471392 -1.211575 1.7595314
0.016693074 -1.2115749 1.7159191
0.016920066 -1.211575 1.6712623
0.017152568 -1.2115749 1.6255213
0.011374542 -1.2246598 2.5703416
0.011355337 -1.2093484 2.5744438
0.012566724 -1.2233236 2.3156855
0.012643775 -1.2166204 2.299227
0.012739495 -1.2115759 2.2787807
0.012890576 -1.211576 2.2465091
0.01304468 -1.211576 2.2135916
0.013201911 -1.211576 2.1800065
0.01336237 -1.2115759 2.1457314
0.013526157 -1.2115756 2.1107459
0.013693389 -1.2115756 2.0750241
0.013864189 -1.2115761 2.0385406
0.014038666 -1.2115761 2.0012712
0.014216954 -1.2115762 1.9631883
0.014399182 -1.2115761 1.9242634
0.014585496 -1.2115759 1.8844657
0.014776036 -1.2115759 1.8437655
0.014970962 -1.2115762 1.8021284
0.015170423 -1.211576 1.7595223
0.0153746 -1.2115762 1.7159094
0.015583664 -1.2115763 1.6712523
0.015797799 -1.2115759 1.6255118
-0.0020056984 -1.2246982 2.5702398
-0.0020023116 -1.209386 2.5743427
-0.0022158744 -1.2233373 2.3156269
-0.0022294605 -1.216634 2.2991681
-0.0022463123 -1.2115752 2.2787535
-0.0022729514 -1.211575 2.2464821
-0.0023001246 -1.2115753 2.2135637
-0.0023278485 -1.2115754 2.1799781
-0.0023561413 -1.211575 2.1457033
-0.0023850219 -1.2115752 2.1107166
-0.0024145097 -1.2115752 2.0749943
-0.0024446256 -1.2115753 2.038511
-0.0024753907 -1.2115754 2.0012412
-0.0025068275 -1.2115754 1.963158
-0.0025389593 -1.2115754 1.9242325
-0.0025718114 -1.2115752 1.8844345
-0.0026054084 -1.211575 1.843734
-0.0026397787 -1.2115753 1.802097
-0.0026749496 -1.2115753 1.75949
-0.002710951 -1.2115753 1.7158769
-0.0027478146 -1.2115755 1.6712191
-0.0027855723 -1.211575 1.6254784
0.0038705487 -1.2248199 2.5700004
0.0038640138 -1.2095065 2.5741034
0.0042758677 -1.2233807 2.3155341
0.004302084 -1.2166772 2.2990749
0.0043344409 -1.2115731 2.2787607
0.0043858429 -1.211573 2.2464895
0.0044382755 -1.2115729 2.2135715
0.0044917706 -1.211573 2.1799862
0.0045463643 -1.2115728 2.1457114
0.0046020914 -1.2115728 2.1107249
0.0046589905 -1.2115728 2.0750027
0.0047171009 -1.2115729 2.0385199
0.0047764643 -1.2115729 2.0012505
0.0048371241 -1.2115729 1.9631671
0.0048991255 -1.2115729 1.9242417
0.0049625156 -1.2115725 1.8844442
0.005027344 -1.2115724 1.8437438
0.0050936639 -1.2115726 1.8021069
0.0051615294 -1.2115726 1.7594999
0.0052309963 -1.2115725 1.7158873
0.0053021265 -1.2115725 1.6712303
0.0053749853 -1.2115726 1.6254883
-0.002332224 -1.2248729 2.5698934
-0.0023282855 -1.2095585 2.5739973
-0.00257638 -1.2233998 2.3154902
-0.0025921762 -1.216696 2.299031
-0.0026116304 -1.2115722 2.2787604
-0.0026426017 -1.2115721 2.246489
-0.0026741936 -1.2115721 2.2135713
-0.0027064262 -1.2115721 2.179986
-0.00273932 -1.2115716 2.1457117
-0.0027728977 -1.2115718 2.1107247
-0.0028071804 -1.2115716 2.0750031
-0.0028421939 -1.2115717 2.0385201
-0.0028779628 -1.2115719 2.0012503
-0.0029145118 -1.2115719 1.9631671
-0.002951869 -1.2115718 1.9242421
-0.002990064 -1.2115716 1.8844441
-0.0030291248 -1.2115715 1.8437439
-0.0030690846 -1.2115716 1.8021069
-0.0031099753 -1.2115716 1.7595001
-0.0031518314 -1.2115716 1.7158873
-0.00319469 -1.2115717 1.6712301
-0.0032385883 -1.2115713 1.6254891
-0.0056146928 -1.2250643 2.569519
-0.0056052119 -1.2097476 2.5736232
-0.0062018656 -1.2234688 2.3153446
-0.0062398915 -1.216765 2.2988837
-0.0062863478 -1.2115688 2.278774
-0.0063608983 -1.2115688 2.2465026
-0.0064369421 -1.2115688 2.2135849
-0.0065145269 -1.2115687 2.1800001
-0.0065937056 -1.2115686 2.1457253
-0.0066745281 -1.2115686 2.110739
-0.0067570494 -1.2115685 2.0750172
-0.0068413294 -1.2115686 2.0385344
-0.0069274246 -1.2115685 2.0012655
-0.0070153996 -1.2115684 1.9631828
-0.0071053221 -1.2115685 1.9242573
-0.0071972585 -1.211568 1.8844601
-0.0072912802 -1.2115679 1.84376
-0.0073874667 -1.2115681 1.8021231
-0.0074858917 -1.211568 1.759517
-0.0075866412 -1.2115679 1.7159047
-0.0076898024 -1.2115676 1.6712483
-0.0077954689 -1.2115674 1.6255076
-0.0046297116 -1.2250067 2.5696311
-0.0046218936 -1.2096908 2.573735
-0.0051140301 -1.223448 2.3153877
-0.0051453854 -1.2167442 2.2989278
-0.0051837862 -1.2115698 2.2787695
-0.0052452609 -1.2115698 2.2464981
-0.0053079682 -1.21157 2.2135799
-0.005371945 -1.2115697 2.1799953
-0.0054372372 -1.2115697 2.1457202
-0.0055038831 -1.2115694 2.1107342
-0.0055719311 -1.2115693 2.0750127
-0.0056414288 -1.2115694 2.0385299
-0.0057124249 -1.2115695 2.0012603
-0.0057849707 -1.2115694 1.9631773
-0.0058591207 -1.2115694 1.9242523
-0.0059349323 -1.211569 1.8844551
-0.0060124639 -1.211569 1.8437546
-0.0060917796 -1.2115691 1.8021179
-0.0061729429 -1.2115691 1.7595112
-0.006256022 -1.211569 1.7158988
-0.0063410909 -1.211569 1.6712419
-0.0064282245 -1.2115687 1.625501
-0.0059105642 -1.22509 2.5694687
-0.0059005828 -1.2097728 2.5735734
-0.0065285922 -1.2234783 2.3153245
-0.0065686209 -1.2167743 2.2988639
-0.0066174725 -1.2115686 2.2787752
-0.0066959499 -1.2115686 2.2465038
-0.0067759985 -1.2115686 2.2135863
-0.0068576704 -1.2115685 2.1800015
-0.0069410186 -1.2115681 2.1457272
-0.0070260987 -1.2115682 2.1107407
-0.0071129669 -1.2115681 2.0750189
-0.007201686 -1.2115682 2.0385361
-0.0072923163 -1.2115681 2.0012672
-0.0073849251 -1.2115679 1.9631848
-0.0074795829 -1.2115679 1.9242598
-0.0075763613 -1.2115673 1.8844628
-0.0076753371 -1.2115675 1.843762
-0.0077765887 -1.2115675 1.8021256
-0.0078801978 -1.2115674 1.7595195
-0.007986255 -1.2115673 1.715907
-0.0080948509 -1.2115674 1.6712502
-0.0082060825 -1.2115669 1.6255099
-0.0131056 -1.2251691 2.56934
-0.013083473 -1.2098513 2.5734439
-0.014475374 -1.2235073 2.3152919
-0.014564126 -1.2168031 2.2988312
-0.014672079 -1.2115674 2.2788095
-0.014846077 -1.2115674 2.2465386
-0.015023559 -1.2115673 2.2136214
-0.015204638 -1.2115672 2.180037
-0.01538944 -1.211567 2.1457627
-0.015578072 -1.2115668 2.1107774
-0.015770676 -1.2115668 2.0750558
-0.015967378 -1.2115668 2.038574
-0.016168322 -1.2115668 2.0013053
-0.016373653 -1.2115666 1.9632233
-0.016583527 -1.2115666 1.9242985
-0.0167981 -1.2115661 1.8845022
-0.017017545 -1.2115661 1.8438022
-0.017242039 -1.2115663 1.802166
-0.017471757 -1.211566 1.7595607
-0.017706905 -1.211566 1.7159488
-0.017947681 -1.2115661 1.6712923
-0.018194301 -1.2115656 1.6255525
-0.013563213 -1.2252308 2.5692201
-0.013540311 -1.2099122 2.5733244
-0.014980334 -1.2235297 2.3152454
-0.015072184 -1.2168255 2.2987843
-0.015183611 -1.2115664 2.2788146
-0.015363675 -1.2115664 2.2465436
-0.015547344 -1.2115663 2.2136266
-0.015734738 -1.2115662 2.1800423
-0.015925981 -1.2115661 2.1457679
-0.01612119 -1.2115659 2.1107826
-0.016320508 -1.2115659 2.0750613
-0.016524071 -1.2115659 2.0385792
-0.016732018 -1.2115657 2.0013111
-0.016944509 -1.2115657 1.9632286
-0.017161701 -1.2115657 1.9243039
-0.017383754 -1.2115651 1.8845079
-0.017610848 -1.211565 1.8438083
-0.017843168 -1.2115651 1.8021724
-0.018080896 -1.2115649 1.759567
-0.018324243 -1.2115649 1.7159549
-0.018573413 -1.2115649 1.6712989
-0.018828627 -1.2115643 1.6255596
-0.027439486 -1.2255231 2.5687571
-0.027393147 -1.2102005 2.5728626
-0.03030188 -1.2236376 2.3151379
-0.030487671 -1.2169328 2.2986763
-0.030710258 -1.2115625 2.278954
-0.031074448 -1.2115623 2.2466855
-0.031445939 -1.2115623 2.2137699
-0.031824958 -1.211562 2.1801875
-0.032211758 -1.2115617 2.1459155
-0.032606591 -1.2115617 2.1109319
-0.033009727 -1.2115616 2.0752125
-0.033421442 -1.2115613 2.0387328
-0.033842042 -1.2115613 2.001466
-0.034271825 -1.2115612 1.9633858
-0.034711108 -1.2115611 1.9244636
-0.035160232 -1.2115606 1.8846693
-0.035619553 -1.2115605 1.843972
-0.036089435 -1.2115604 1.8023387
-0.036570262 -1.2115602 1.7597355
-0.037062448 -1.2115601 1.7161261
-0.037566416 -1.2115601 1.6714723
-0.038082615 -1.2115595 1.6257353
-0.02785081 -1.2254499 2.568907
-0.027803775 -1.2101281 2.5730128
-0.030757265 -1.2236103 2.315203
-0.030945849 -1.2169057 2.2987413
-0.031172495 -1.2115633 2.2789576
-0.031542175 -1.2115635 2.2466881
-0.031919256 -1.2115633 2.213773
-0.032303978 -1.2115631 2.1801906
-0.032696601 -1.2115628 2.1459186
-0.033097379 -1.2115628 2.1109347
-0.03350658 -1.2115625 2.0752158
-0.033924501 -1.2115625 2.0387356
-0.034351427 -1.2115625 2.0014691
-0.034787677 -1.2115624 1.9633888
-0.035233572 -1.2115623 1.9244667
-0.035689455 -1.2115616 1.8846729
-0.036155686 -1.2115614 1.8439757
-0.036632646 -1.2115616 1.8023418
-0.037120715 -1.2115614 1.7597383
-0.037620306 -1.2115613 1.7161291
-0.038131863 -1.2115613 1.6714754
-0.038655825 -1.2115606 1.6257389
-0.03192082 -1.2255002 2.5688572
-0.031866916 -1.210178 2.5729625
-0.035251107 -1.2236291 2.315217
-0.035467241 -1.2169242 2.2987559
-0.035726443 -1.2115629 2.2790148
-0.03615012 -1.2115626 2.2467465
-0.036582291 -1.2115626 2.2138319
-0.037023224 -1.2115626 2.1802497
-0.037473194 -1.211562 2.1459789
-0.037932515 -1.2115618 2.1109962
-0.038401503 -1.2115618 2.0752776
-0.038880475 -1.2115618 2.0387981
-0.039369769 -1.2115617 2.0015328
-0.039869748 -1.2115616 1.9634535
-0.040380787 -1.2115614 1.9245319
-0.040903274 -1.211561 1.8847386
-0.041437615 -1.2115608 1.8440421
-0.041984253 -1.2115608 1.8024093
-0.042543616 -1.2115606 1.7598075
-0.04311619 -1.2115604 1.716199
-0.043702479 -1.2115605 1.6715463
-0.044302989 -1.2115598 1.6258107
-0.036377076 -1.225662 2.5685987
-0.036315646 -1.2103376 2.5727048
-0.040168948 -1.223689 2.3151546
-0.040415242 -1.216984 2.2986927
-0.040708531 -1.2115607 2.2790895
-0.041191291 -1.2115605 2.2468224
-0.041683726 -1.2115605 2.2139084
-0.042186141 -1.2115602 2.1803277
-0.042698875 -1.21156 2.1460571
-0.043222252 -1.2115599 2.1110752
-0.04375663 -1.2115595 2.0753582
-0.044302393 -1.2115594 2.0388801
-0.04485992 -1.2115593 2.0016155
-0.045429625 -1.2115593 1.9635371
-0.046011925 -1.2115592 1.9246168
-0.046607267 -1.2115585 1.8848249
-0.047216121 -1.2115583 1.8441297
-0.047838986 -1.2115583 1.8024982
-0.048476353 -1.2115581 1.7598972
-0.049128775 -1.211558 1.7162902
-0.049796812 -1.2115576 1.6716396
-0.050481077 -1.2115574 1.625904
-0.040136196 -1.2257365 2.5685103
-0.040068418 -1.2104112 2.5726163
-0.044318229 -1.223717 2.3151586
-0.044589967 -1.2170119 2.2986965
-0.044912487 -1.2115598 2.2791579
-0.045445111 -1.2115597 2.246891
-0.045988396 -1.2115597 2.2139783
-0.046542697 -1.2115594 2.1803982
-0.047108371 -1.2115589 2.1461289
-0.047685798 -1.2115588 2.1111479
-0.048275366 -1.2115587 2.0754313
-0.048877485 -1.2115585 2.0389545
-0.04949259 -1.2115585 2.0016906
-0.050121129 -1.2115583 1.9636134
-0.050763555 -1.2115581 1.9246944
-0.051420383 -1.2115575 1.8849031
-0.052092113 -1.2115573 1.8442091
-0.052779291 -1.2115571 1.8025792
-0.05348248 -1.2115569 1.7599794
-0.054202292 -1.211557 1.7163725
-0.054939315 -1.2115568 1.6717229
-0.05569423 -1.2115562 1.6259894
-0.038664091 -1.2260299 2.5679042
-0.038598791 -1.2107008 2.5720117
-0.042686339 -1.2238265 2.3148916
-0.042948082 -1.2171211 2.2984273
-0.043288503 -1.2125025 2.2770138
-0.043767653 -1.2115555 2.2468736
-0.044290908 -1.2115558 2.2139592
-0.044824753 -1.2115558 2.1803787
-0.045369551 -1.2115554 2.1461091
-0.045925651 -1.211555 2.1111286
-0.046493463 -1.211555 2.0754113
-0.047073349 -1.2115546 2.0389345
-0.047665752 -1.2115546 2.0016706
-0.048271086 -1.2115544 1.9635931
-0.048889805 -1.2115543 1.9246737
-0.049522381 -1.2115536 1.8848826
-0.050169319 -1.2115533 1.8441882
-0.050831132 -1.2115532 1.8025581
-0.051508367 -1.2115531 1.7599577
-0.052201591 -1.2115527 1.7163517
-0.052911419 -1.2115527 1.6717012
-0.053638462 -1.2115519 1.625968
-0.03866167 -1.2259531 2.5680563
-0.038596381 -1.2106252 2.5721633
-0.042685337 -1.2237978 2.3149548
-0.042947065 -1.2170924 2.2984912
-0.043274246 -1.2121031 2.2779105
-0.043767653 -1.2115555 2.2468736
-0.044290937 -1.2115568 2.2139573
-0.044824783 -1.2115567 2.1803768
-0.045369577 -1.2115562 2.1461074
-0.045925692 -1.2115561 2.1111259
-0.046493493 -1.2115558 2.0754094
-0.04707339 -1.2115557 2.0389321
-0.04766579 -1.2115556 2.0016682
-0.048271127 -1.2115555 1.9635905
-0.048889842 -1.2115551 1.9246714
-0.049522426 -1.2115546 1.8848798
-0.05016936 -1.2115544 1.8441856
-0.050831176 -1.2115543 1.8025551
-0.051508408 -1.2115539 1.7599552
-0.052201629 -1.2115537 1.7163492
-0.05291146 -1.2115537 1.6716986
-0.053638507 -1.211553 1.625965
-0.039544199 -1.2260176 2.5679426
-0.039477412 -1.2106886 2.5720501
-0.043658279 -1.223822 2.3149173
-0.043925975 -1.2171165 2.2984536
-0.044272065 -1.2124408 2.277168
-0.044764381 -1.2115555 2.2468896
-0.045299552 -1.211556 2.2139752
-0.045845553 -1.211556 2.1803949
-0.04640276 -1.2115555 2.1461256
-0.04697153 -1.2115551 2.111145
-0.047552265 -1.211555 2.0754285
-0.048145372 -1.211555 2.0389509
-0.048751257 -1.2115548 2.0016875
-0.049370375 -1.2115545 1.9636106
-0.050003182 -1.2115543 1.9246916
-0.050650176 -1.2115538 1.8849
-0.051311843 -1.2115537 1.8442059
-0.051988725 -1.2115533 1.8025762
-0.052681379 -1.2115531 1.7599763
-0.053390391 -1.2115529 1.7163705
-0.054116379 -1.2115527 1.6717206
-0.054859985 -1.211552 1.6259872
-0.052850161 -1.2262174 2.5677991
-0.052760895 -1.2108856 2.5719073
-0.058342632 -1.223897 2.3150318
-0.058700338 -1.2171904 2.2985699
-0.059240788 -1.214112 2.2736981
-0.059829801 -1.2118126 2.2465911
-0.060532123 -1.2115537 2.2142699
-0.061261725 -1.2115536 2.1806931
-0.062006302 -1.2115533 2.1464272
-0.062766314 -1.2115527 2.1114507
-0.063542336 -1.2115526 2.075738
-0.064334884 -1.2115526 2.0392644
-0.065144494 -1.2115521 2.0020053
-0.065971807 -1.2115521 1.9639319
-0.066817403 -1.2115519 1.9250169
-0.067681946 -1.2115513 1.8852302
-0.068566106 -1.211551 1.8445406
-0.069470599 -1.2115508 1.802915
-0.07039617 -1.2115506 1.7603197
-0.071343586 -1.2115501 1.7167188
-0.072313704 -1.2115501 1.6720735
-0.073307343 -1.2115493 1.6263454
-0.05333855 -1.2262887 2.5676682
-0.053248446 -1.2109559 2.5717771
-0.05887964 -1.2239237 2.3149846
-0.059267793 -1.217775 2.2972844
-0.059816997 -1.2147669 2.2722394
-0.060396448 -1.2121593 2.2458155
-0.061087742 -1.2115496 2.2142913
-0.061824206 -1.2115529 2.1807072
-0.062575616 -1.2115524 2.1464417
-0.063342616 -1.211552 2.111465
-0.064125761 -1.2115519 2.0757523
-0.064925566 -1.2115517 2.0392797
-0.065742634 -1.2115515 2.0020199
-0.066577531 -1.2115513 1.9639473
-0.067430884 -1.211551 1.9250327
-0.068303369 -1.2115504 1.8852459
-0.069195636 -1.21155 1.8445569
-0.070108443 -1.2115499 1.8029313
-0.071042508 -1.2115495 1.7603365
-0.071998633 -1.2115493 1.7167356
-0.072977647 -1.211549 1.6720906
-0.073980436 -1.2115486 1.6263618
-0.05753655 -1.2266454 2.5670559
-0.057439353 -1.2113081 2.5711658
-0.063502237 -1.2240578 2.3147957
-0.064078055 -1.2209035 2.290447
-0.064673305 -1.2179153 2.2652767
-0.065277345 -1.2148831 2.2397346
-0.065912575 -1.2122136 2.2128739
-0.066670232 -1.2115449 2.1808362
-0.067480773 -1.2115486 2.1465626
-0.068307906 -1.2115483 2.111587
-0.069152422 -1.211548 2.0758765
-0.070014931 -1.2115477 2.0394051
-0.070896029 -1.2115475 2.0021477
-0.07179638 -1.2115473 1.9640763
-0.072716616 -1.2115468 1.9251639
-0.07365749 -1.2115463 1.8853786
-0.07461971 -1.2115458 1.8446913
-0.075604051 -1.2115455 1.8030682
-0.076611333 -1.2115452 1.760475
-0.077642404 -1.2115449 1.716876
-0.078698151 -1.2115445 1.6722336
-0.079779521 -1.2115438 1.6265075
-0.061900191 -1.226541 2.5673699
-0.061795622 -1.2112051 2.5714793
-0.068321958 -1.2240189 2.3149993
-0.068893164 -1.220009 2.2925515
-0.0695327 -1.2170153 2.2674184
-0.07018166 -1.2139772 2.2419147
-0.070888527 -1.2117183 2.2141354
-0.071732998 -1.2115502 2.180948
-0.072604835 -1.2115496 2.1466858
-0.073494762 -1.2115493 2.1117122
-0.074403428 -1.2115492 2.0760024
-0.075331427 -1.2115489 2.0395329
-0.076279432 -1.2115487 2.0022769
-0.077248149 -1.2115486 1.9642069
-0.078238271 -1.2115481 1.9252961
-0.079250589 -1.2115475 1.8855126
-0.08028587 -1.2115471 1.8448271
-0.081344962 -1.2115469 1.8032053
-0.082428724 -1.2115464 1.7606145
-0.083538093 -1.2115463 1.7170169
-0.084674008 -1.2115459 1.6723764
-0.085837483 -1.2115451 1.6266526
-0.066820286 -1.2266021 2.5673792
-0.066707417 -1.2112656 2.5714881
-0.073750176 -1.2240415 2.3150935
-0.0743974 -1.2205342 2.2915308
-0.07508833 -1.217544 2.2663774
-0.075789437 -1.2145092 2.2408535
-0.076537311 -1.2120044 2.2136266
-0.077430755 -1.2115495 2.1811006
-0.078371838 -1.211549 2.1468399
-0.079332463 -1.2115487 2.1118679
-0.080313295 -1.2115484 2.0761604
-0.081315003 -1.2115482 2.0396929
-0.082338318 -1.211548 2.0024388
-0.08338397 -1.2115477 1.9643713
-0.084452741 -1.2115474 1.9254622
-0.085545458 -1.2115467 1.8856814
-0.086662978 -1.2115464 1.8449975
-0.087806202 -1.2115463 1.803378
-0.088976026 -1.2115456 1.76079
-0.09017352 -1.2115455 1.7171948
-0.091399662 -1.2115451 1.6725566
-0.092655562 -1.2115443 1.6268351
-0.064485572 -1.2267848 2.5669534
-0.064376637 -1.2114457 2.5710638
-0.071219206 -1.2250128 2.3128932
-0.071877882 -1.2220751 2.2880411
-0.072546221 -1.2190946 2.2628245
-0.073224418 -1.2160698 2.237236
-0.073912635 -1.2129982 2.2112696
-0.074714035 -1.2115471 2.1810327
-0.075622134 -1.2115471 2.14677
-0.076549053 -1.2115468 2.1117973
-0.077495463 -1.2115464 2.0760894
-0.078462034 -1.2115463 2.0396204
-0.07944943 -1.2115459 2.0023658
-0.080458403 -1.2115458 1.9642972
-0.081489667 -1.2115453 1.9253876
-0.082544066 -1.2115449 1.8856051
-0.083622351 -1.2115443 1.8449212
-0.084725454 -1.2115439 1.8033011
-0.085854255 -1.2115436 1.7607113
-0.087009721 -1.2115432 1.7171154
-0.088192843 -1.2115428 1.6724762
-0.08940468 -1.2115421 1.6267533
-0.076297574 -1.2268937 2.5670793
-0.076168671 -1.211553 2.5711896
-0.085098691 -1.2229701 2.2864358
-0.085890517 -1.2199954 2.2611866
-0.086694017 -1.2169762 2.2355654
-0.08750958 -1.2139126 2.209559
-0.088400781 -1.2116706 2.1811411
-0.089466028 -1.2115459 2.1471734
-0.090562634 -1.2115456 2.1122057
-0.0916823 -1.2115453 2.0765023
-0.092825808 -1.211545 2.0400391
-0.093993977 -1.2115448 2.0027895
-0.095187642 -1.2115445 1.9647267
-0.096407712 -1.2115442 1.9258221
-0.097655118 -1.2115434 1.8860458
-0.098930821 -1.2115431 1.8453671
-0.10023586 -1.2115428 1.8037528
-0.10157131 -1.2115424 1.7611691
-0.10293829 -1.2115419 1.7175798
-0.10433802 -1.2115418 1.6729463
-0.10577171 -1.2115411 1.62723
-0.073217988 -1.2273574 2.5660641
-0.073094271 -1.2120107 2.5701766
-0.082641788 -1.2236855 2.252795
-0.083417185 -1.2206906 2.2270191
-0.084204197 -1.2176505 2.2008569
-0.085003152 -1.2145646 2.1742976
-0.085855298 -1.2120093 2.1459703
-0.086874098 -1.2115411 2.1121032
-0.087948151 -1.2115406 2.0763991
-0.0890451 -1.2115405 2.0399342
-0.090165667 -1.2115401 2.0026836
-0.091310732 -1.2115399 1.9646192
-0.092481092 -1.2115394 1.9257137
-0.093677685 -1.2115387 1.885936
-0.09490142 -1.2115382 1.8452562
-0.096153319 -1.211538 1.8036402
-0.097434357 -1.2115372 1.7610557
-0.098745659 -1.2115368 1.7174649
-0.10008837 -1.2115366 1.67283
-0.10146365 -1.2115357 1.6271125
-0.073085979 -1.2272265 2.5663199
-0.072962493 -1.2118816 2.5704317
-0.082433045 -1.2226688 2.2550733
-0.083205849 -1.2196672 2.2293396
-0.083990254 -1.2166207 2.2032199
-0.084786527 -1.213528 2.1767049
-0.0856767 -1.2115434 2.147063
-0.086726807 -1.2115424 2.1120956
-0.08779905 -1.2115421 2.0763912
-0.088894129 -1.2115418 2.0399265
-0.090012804 -1.2115414 2.0026758
-0.091155909 -1.2115411 1.9646115
-0.092324294 -1.2115406 1.9257059
-0.093518868 -1.21154 1.8859277
-0.094740532 -1.2115395 1.8452477
-0.0959903 -1.2115393 1.8036318
-0.09726917 -1.2115387 1.7610469
-0.098578252 -1.2115382 1.7174561
-0.099918686 -1.211538 1.672821
-0.10129164 -1.2115371 1.6271033
-0.081882976 -1.2272346 2.5665841
-0.081744634 -1.2118896 2.5706954
-0.092359282 -1.2227321 2.2552469
-0.093225203 -1.219731 2.2295134
-0.094104081 -1.2166847 2.2033947
-0.094996296 -1.2135926 2.1768796
-0.095988378 -1.2115412 2.1473966
-0.097165048 -1.2115422 2.1124282
-0.09836635 -1.2115421 2.0767276
-0.099593207 -1.2115417 2.0402675
-0.10084654 -1.2115414 2.0030208
-0.10212723 -1.2115411 1.9649609
-0.10343624 -1.2115406 1.9260597
-0.10477457 -1.2115397 1.8862867
-0.10614329 -1.2115395 1.8456109
-0.10754346 -1.211539 1.8040004
-0.10897627 -1.2115386 1.7614199
-0.11044291 -1.2115382 1.7178339
-0.11194468 -1.211538 1.6732039
-0.11348288 -1.2115371 1.6274915
-0.087201089 -1.2275225 2.5661972
-0.087053724 -1.2121733 2.5703104
-0.098512307 -1.2249401 2.2504985
-0.09943752 -1.2219533 2.2246757
-0.10037665 -1.2189219 2.1984644
-0.10133003 -1.2158445 2.1718552
-0.10229791 -1.2127181 2.1448414
-0.1034512 -1.2115396 2.112653
-0.10473021 -1.2115394 2.0769553
-0.10603645 -1.2115389 2.040498
-0.10737085 -1.2115386 2.0032544
-0.1087344 -1.2115382 1.9651976
-0.11012809 -1.2115377 1.9262995
-0.11155301 -1.211537 1.8865293
-0.11301025 -1.2115364 1.8458576
-0.11450101 -1.2115359 1.8042501
-0.11602653 -1.2115357 1.7616726
-0.11758804 -1.2115351 1.7180903
-0.11918696 -1.2115349 1.6734643
-0.12082465 -1.2115338 1.627756
-0.087164044 -1.2276217 2.565999
-0.087016739 -1.2122712 2.5701125
-0.099448085 -1.2227013 2.222975
-0.10038786 -1.2196746 2.1967323
-0.10134193 -1.2166023 2.1700907
-0.10231058 -1.2134818 2.1430416
-0.10339889 -1.2115396 2.1126511
-0.10467717 -1.2115382 2.076956
-0.10598277 -1.2115381 2.040498
-0.10731649 -1.2115376 2.0032547
-0.10867932 -1.211537 1.9651984
-0.11007231 -1.2115368 1.9262999
-0.11149651 -1.2115359 1.8865303
-0.11295302 -1.2115355 1.845858
-0.11444305 -1.2115352 1.80425
-0.11596776 -1.2115346 1.7616735
-0.11752848 -1.211534 1.7180911
-0.11912658 -1.2115337 1.6734653
-0.12076348 -1.211533 1.627756
-0.093049124 -1.2280754 2.5653162
-0.092891857 -1.2127191 2.5694311
-0.10741903 -1.2230088 2.1893194
-0.10844259 -1.2199581 2.1625371
-0.10948194 -1.2168604 2.1353419
-0.11053738 -1.2137142 2.1077259
-0.11170293 -1.2115332 2.0772285
-0.11309624 -1.2115339 2.0407715
-0.11451948 -1.2115334 2.0035317
-0.1159738 -1.211533 1.9654787
-0.11746027 -1.2115325 1.9265842
-0.11898006 -1.2115316 1.8868182
-0.12053432 -1.211531 1.84615
-0.12212434 -1.2115307 1.8045464
-0.12375142 -1.2115303 1.7619729
-0.12541689 -1.2115297 1.718395
-0.12712224 -1.2115293 1.6737735
-0.12886895 -1.2115282 1.6280695
-0.096042149 -1.2279588 2.5656638
-0.09587983 -1.2126042 2.569778
-0.11080861 -1.2221684 2.191385
-0.11186377 -1.2191122 2.1646404
-0.11293519 -1.2160089 2.1374838
-0.11402342 -1.2128597 2.1099007
-0.11530682 -1.2115321 2.0773709
-0.11674528 -1.2115349 2.040911
-0.11821447 -1.2115347 2.0036721
-0.1197157 -1.211534 1.9656212
-0.12125014 -1.2115335 1.9267286
-0.12281895 -1.2115327 1.8869646
-0.12442335 -1.2115321 1.8462983
-0.12606467 -1.2115318 1.8046966
-0.12774424 -1.2115314 1.7621253
-0.12946345 -1.2115307 1.7185495
-0.13122383 -1.2115302 1.6739299
-0.13302694 -1.2115294 1.6282274
-0.099376351 -1.2279674 2.5657806
-0.099208407 -1.2126126 2.5698946
-0.11466049 -1.2222307 2.1913962
-0.11575232 -1.2191743 2.1646521
-0.11686108 -1.2160717 2.1374931
-0.11798687 -1.2129196 2.1099167
-0.11930931 -1.2115355 2.0775235
-0.12079737 -1.2115349 2.0410736
-0.12231755 -1.2115346 2.0038369
-0.12387088 -1.2115339 1.9657882
-0.12545858 -1.2115335 1.9268975
-0.12708186 -1.2115327 1.8871356
-0.12874195 -1.2115321 1.8464717
-0.13044022 -1.2115316 1.8048724
-0.13217808 -1.2115312 1.7623037
-0.13395697 -1.2115307 1.7187299
-0.13577844 -1.2115302 1.6741129
-0.13764414 -1.2115294 1.628413
-0.098186009 -1.2282528 2.5651658
-0.098020054 -1.2128942 2.5692811
-0.11344939 -1.2242663 2.1866617
-0.1145315 -1.2212241 2.1598272
-0.11563021 -1.2181338 2.1325812
-0.11674614 -1.2149971 2.1049082
-0.11791849 -1.2122105 2.0758359
-0.11932246 -1.2115322 2.0410202
-0.12082408 -1.211532 2.0037827
-0.12235845 -1.2115315 1.9657332
-0.12392676 -1.2115309 1.926842
-0.12553021 -1.2115301 1.8870794
-0.12717004 -1.2115295 1.8464146
-0.12884757 -1.2115289 1.8048149
-0.1305642 -1.2115285 1.7622454
-0.13232137 -1.2115279 1.7186708
-0.13412058 -1.2115273 1.6740535
-0.13596351 -1.2115266 1.6283524
-0.09908589 -1.2130082 2.5690956
-0.11584301 -1.2220365 2.1579881
-0.11695508 -1.2189523 2.1307051
-0.11808453 -1.2158209 2.1029961
-0.11923373 -1.2126604 2.0748022
-0.12060861 -1.2115324 2.0410719
-0.12212629 -1.2115309 2.0038383
-0.12367719 -1.2115303 1.9657894
-0.12526244 -1.2115302 1.9268981
-0.12688313 -1.211529 1.8871369
-0.12854065 -1.2115285 1.8464729
-0.13023625 -1.2115279 1.8048738
-0.13197139 -1.2115275 1.7623054
-0.13374747 -1.2115268 1.718732
-0.13556612 -1.2115264 1.6741148
-0.13742885 -1.2115252 1.6284156
-0.11249459 -1.213402 2.5688884
-0.13303888 -1.2217078 2.1249075
-0.13432638 -1.2185943 2.0970829
-0.13563427 -1.2154319 2.0688186
-0.13698575 -1.2124205 2.0396118
-0.13860753 -1.2115276 2.0045636
-0.14036772 -1.211527 1.9665242
-0.14216687 -1.2115266 1.9276428
-0.14400631 -1.2115256 1.8878909
-0.14588749 -1.211525 1.8472369
-0.14781193 -1.2115245 1.8056479
-0.1497812 -1.2115237 1.7630905
-0.15179701 -1.2115233 1.7195269
-0.15386105 -1.2115227 1.674921
-0.15597519 -1.2115217 1.6292324
-0.1125769 -1.213304 2.5690889
-0.131806 -1.2241031 2.1538684
-0.13307339 -1.2210327 2.1265011
-0.13436055 -1.2179146 2.0987072
-0.13566805 -1.2147477 2.0704739
-0.13705619 -1.212059 2.0404994
-0.13872021 -1.2115283 2.0045674
-0.14048187 -1.2115278 1.9665273
-0.14228249 -1.2115273 1.9276462
-0.14412341 -1.2115264 1.8878944
-0.14600612 -1.2115258 1.8472403
-0.14793216 -1.2115254 1.8056507
-0.14990301 -1.2115247 1.7630934
-0.15192044 -1.211524 1.7195306
-0.15398617 -1.2115235 1.6749244
-0.15610205 -1.2115227 1.6292357
-0.11556902 -1.2133861 2.5690646
-0.13666457 -1.2216005 2.1253304
-0.13798705 -1.2184862 2.0975127
-0.13933043 -1.215323 2.0692554
-0.14072542 -1.2123692 2.0399125
-0.14239749 -1.2115276 2.0047414
-0.14420585 -1.2115272 1.9667035
-0.14605418 -1.2115266 1.927825
-0.1479439 -1.2115257 1.8880755
-0.14987652 -1.211525 1.847424
-0.15185361 -1.2115246 1.805837
-0.15387671 -1.2115239 1.7632818
-0.15594763 -1.2115233 1.7197213
-0.15806811 -1.2115227 1.6751182
-0.16024007 -1.211522 1.629432
-0.11508104 -1.2137252 2.5683606
-0.13630536 -1.2238981 2.1198947
-0.13762674 -1.2207989 2.0919743
-0.13896914 -1.2176517 2.0636096
-0.14033291 -1.2144536 2.0347934
-0.14179757 -1.2118777 2.0038455
-0.14355603 -1.2115206 1.9666896
-0.14539649 -1.2115238 1.9278011
-0.14727771 -1.2115228 1.8880512
-0.14920162 -1.2115222 1.8473994
-0.15116976 -1.2115215 1.8058128
-0.15318379 -1.2115209 1.763257
-0.15524538 -1.2115204 1.719696
-0.15735629 -1.2115196 1.6750929
-0.15951845 -1.2115188 1.6294067
-0.12645592 -1.2138451 2.5686846
-0.1513142 -1.2215986 2.0907445
-0.15279104 -1.218457 2.0623498
-0.15429138 -1.2152638 2.0335035
-0.15585475 -1.212321 2.0034451
-0.15773022 -1.2115234 1.9673864
-0.15975189 -1.2115228 1.9285165
-0.16181883 -1.2115217 1.8887763
-0.16393271 -1.2115213 1.8481334
-0.16609521 -1.2115208 1.8065561
-0.16830808 -1.2115202 1.7640103
-0.17057316 -1.2115192 1.7204605
-0.1728925 -1.2115186 1.6758674
-0.17526814 -1.2115177 1.6301919
-0.12415095 -1.2143724 2.5675068
-0.15036626 -1.2219132 2.0538695
-0.15184687 -1.2187439 2.0248599
-0.15335159 -1.215524 1.9953781
-0.1549056 -1.2124441 1.9649303
-0.15677138 -1.2115184 1.9283741
-0.15879981 -1.2115177 1.888631
-0.1608742 -1.2115169 1.8479872
-0.16299634 -1.2115163 1.8064083
-0.16516793 -1.2115158 1.7638603
-0.16739075 -1.2115148 1.7203084
-0.1696668 -1.2115141 1.6757137
-0.1719981 -1.211513 1.6300365
-0.12412126 -1.2142508 2.5677495
-0.15024903 -1.2211304 2.0557561
-0.15172754 -1.2179555 2.0267837
-0.15323012 -1.21473 1.9973395
-0.15482855 -1.2120094 1.966017
-0.15674973 -1.2115196 1.9283701
-0.15877783 -1.2115185 1.8886279
-0.16085197 -1.2115178 1.8479836
-0.16297379 -1.2115171 1.8064049
-0.16514508 -1.2115166 1.7638566
-0.16736761 -1.2115158 1.7203046
-0.16964336 -1.2115152 1.6757095
-0.17197433 -1.211514 1.6300323
-0.1362731 -1.2143577 2.5681853
-0.1650373 -1.2218187 2.0548837
-0.16666226 -1.2186487 2.0258863
-0.16831364 -1.215428 1.9964172
-0.17002533 -1.2123915 1.9658715
-0.17208071 -1.2115188 1.929193
-0.17430718 -1.2115177 1.8894612
-0.17658415 -1.2115169 1.8488283
-0.17891355 -1.2115165 1.80726
-0.18129717 -1.2115158 1.7647239
-0.18373707 -1.2115148 1.7211835
-0.1862354 -1.2115142 1.6766005
-0.18879437 -1.2115132 1.6309352
-0.13650526 -1.2144911 2.5679305
-0.16541594 -1.2226734 2.0528381
-0.16704571 -1.2195092 2.0238011
-0.16870201 -1.2162942 1.9942915
-0.17038503 -1.2130233 1.9643056
-0.17235413 -1.2115132 1.9292226
-0.17458482 -1.2115167 1.8894792
-0.17686544 -1.2115161 1.8488461
-0.17919849 -1.2115153 1.8072789
-0.18158591 -1.2115146 1.7647432
-0.1840297 -1.2115138 1.7212029
-0.18653202 -1.2115132 1.6766198
-0.18909504 -1.211512 1.6309555
-0.13819572 -1.2146064 2.5677943
-0.16920015 -1.2202435 2.0221252
-0.17087872 -1.217033 1.9925827
-0.1725854 -1.2137737 1.9625459
-0.17447215 -1.2115142 1.9293393
-0.17672995 -1.2115158 1.8896028
-0.17903857 -1.2115151 1.8489717
-0.18140034 -1.2115146 1.8074052
-0.18381707 -1.2115136 1.7648716
-0.1862909 -1.2115129 1.7213328
-0.18882394 -1.2115122 1.6767521
-0.19141845 -1.211511 1.6310893
-0.14220396 -1.2152411 2.5667503
-0.17631693 -1.2210071 1.9830438
-0.17808302 -1.217772 1.9528244
-0.1798784 -1.2144822 1.9221038
-0.18180877 -1.2118351 1.8890731
-0.18413386 -1.2115061 1.8492886
-0.18656346 -1.2115097 1.8077158
-0.18904898 -1.2115088 1.7651861
-0.19159319 -1.2115079 1.721652
-0.19419831 -1.2115071 1.6770757
-0.19686666 -1.2115058 1.6314178
-0.14072107 -1.2151163 2.5669148
-0.17438661 -1.22024 1.9848332
-0.17613225 -1.2169993 1.954651
-0.17790803 -1.2137122 1.9239472
-0.17988336 -1.211512 1.8897936
-0.18223317 -1.2115111 1.8491651
-0.18463707 -1.2115105 1.8076016
-0.18709691 -1.2115096 1.7650704
-0.18961488 -1.2115089 1.7215346
-0.19219312 -1.2115082 1.6769563
-0.19483395 -1.2115071 1.6312962
-0.14160179 -1.2152294 2.5667386
-0.17556176 -1.2209358 1.9831762
-0.17732008 -1.2176996 1.9529616
-0.1791078 -1.2144104 1.9222414
-0.18103473 -1.2117957 1.8891294
-0.18335588 -1.2115061 1.8492432
-0.18577522 -1.2115098 1.8076695
-0.18825024 -1.2115089 1.7651393
-0.19078369 -1.2115079 1.7216048
-0.19337784 -1.2115073 1.6770275
-0.19603492 -1.211506 1.6313685
-0.14921868 -1.2155317 2.5665863
-0.18709555 -1.2195492 1.9489014
-0.18898457 -1.2162726 1.9180958
-0.19090571 -1.2129419 1.8867667
-0.19317119 -1.2115091 1.8498219
-0.19571918 -1.2115074 1.8082699
-0.19832668 -1.2115066 1.7657477
-0.20099576 -1.2115058 1.7222209
-0.20372872 -1.2115048 1.6776527
-0.20652807 -1.2115039 1.6320019
-0.15546882 -1.2156566 2.5667264
-0.19503257 -1.2203026 1.9475064
-0.19700296 -1.2170315 1.9166675
-0.19900547 -1.2136979 1.8853259
-0.20124134 -1.2115073 1.8503318
-0.20389594 -1.2115066 1.808784
-0.20661238 -1.2115058 1.7662685
-0.20939295 -1.2115048 1.7227494
-0.21224009 -1.2115039 1.6781883
-0.21515636 -1.2115028 1.632545
-0.1592513 -1.2162549 2.5657685
-0.20228663 -1.2205913 1.9079531
-0.20434985 -1.2172896 1.8764161
-0.20644845 -1.2139324 1.8443377
-0.20875317 -1.2115026 1.809109
-0.21153381 -1.2114987 1.7666055
-0.21438108 -1.2115004 1.7230837
-0.21729608 -1.2114997 1.6785266
-0.22028176 -1.2114983 1.632889
-0.16359478 -1.2161072 2.5663536
-0.20768154 -1.2197245 1.9105161
-0.20979811 -1.2164156 1.8790298
-0.21195091 -1.2130507 1.8470045
-0.21447296 -1.2115033 1.8094863
-0.21733031 -1.2115023 1.7669803
-0.22025514 -1.2115015 1.7234704
-0.22324999 -1.2115006 1.6789188
-0.22631752 -1.2114995 1.6332859
-0.16805798 -1.2162226 2.5664258
-0.21344574 -1.2204019 1.9091855
-0.21562231 -1.2170981 1.8776675
-0.21783665 -1.2137412 1.8456028
-0.22030319 -1.2115026 1.8098856
-0.22323769 -1.2114987 1.7673924
-0.22624253 -1.2115005 1.7238809
-0.22931881 -1.2114999 1.6793344
-0.23246971 -1.2114985 1.6337079
-0.16650379 -1.216527 2.565707
-0.21388707 -1.2188777 1.8729613
-0.21608625 -1.215531 1.840809
-0.21836659 -1.2123652 1.8074703
-0.22111797 -1.2114995 1.7672449
-0.22409375 -1.2114984 1.723739
-0.22714078 -1.2114975 1.6791912
-0.23026179 -1.2114964 1.6335622
-0.16723193 -1.2166811 2.5654471
-0.21495214 -1.2197683 1.8707389
-0.21716397 -1.2164284 1.8385394
-0.21941386 -1.213029 1.8057855
-0.22205666 -1.2114985 1.7673118
-0.22504507 -1.2114975 1.7238067
-0.22810501 -1.2114965 1.6792603
-0.23123923 -1.2114952 1.6336325
-0.18056251 -1.2173626 2.5650287
-0.23509187 -1.220313 1.8296744
-0.23753542 -1.2169434 1.7967219
-0.24002174 -1.2135133 1.7631927
-0.24284708 -1.2114925 1.7250916
-0.24614915 -1.2114919 1.6805615
-0.24953128 -1.2114904 1.6349521
-0.25314385 -1.2121944 1.5862348
-0.1812624 -1.2172017 2.5654044
-0.23585887 -1.2194059 1.832101
-0.23830861 -1.2160295 1.7991979
-0.24080575 -1.2126157 1.765658
-0.24382092 -1.211494 1.7251601
-0.24713618 -1.211493 1.680632
-0.25053185 -1.2114915 1.6350235
-0.25419146 -1.2123506 1.5858703
-0.18888335 -1.2173293 2.5657272
-0.24589472 -1.2201264 1.8309815
-0.24845009 -1.216755 1.7980486
-0.2510497 -1.2133209 1.7645454
-0.25404519 -1.2114928 1.7259406
-0.25749949 -1.2114919 1.6814227
-0.26103762 -1.2114906 1.6358243
-0.26482376 -1.2122267 1.5870295
-0.18974651 -1.217591 2.5652678
-0.24983336 -1.2182254 1.7942636
-0.25245029 -1.2148006 1.7606845
-0.25524268 -1.2119268 1.7248538
-0.25862059 -1.2114918 1.6815103
-0.26217377 -1.2114888 1.6359177
-0.26592109 -1.2119728 1.5878339
-0.19224803 -1.2177888 2.5650659
-0.25331461 -1.2193264 1.7916217
-0.25597116 -1.2159134 1.7579751
-0.25869438 -1.2125301 1.7234839
-0.26198691 -1.211489 1.6817821
-0.26558664 -1.2114874 1.6361895
-0.26934043 -1.211781 1.5886456
-0.19206074 -1.2184162 2.5637889
-0.25631526 -1.2193632 1.7487466
-0.2590304 -1.2159153 1.7143062
-0.26181656 -1.2125062 1.6789653
-0.26519036 -1.2114834 1.6361697
-0.26887316 -1.2114822 1.5894551
-0.19793142 -1.2182357 2.5646219
-0.26397616 -1.2183802 1.7519975
-0.26676965 -1.2149223 1.717626
-0.2697401 -1.2119702 1.6810769
-0.27333763 -1.2114867 1.6368124
-0.27713308 -1.2114834 1.5901129
-0.19390716 -1.2185192 2.5637281
-0.25887597 -1.2199212 1.7474524
-0.26161942 -1.2164772 1.7129835
-0.26441193 -1.212968 1.6778982
-0.26771715 -1.2114829 1.6363709
-0.27143499 -1.2114817 1.5896593
-0.20568801 -1.2187394 2.5642512
-0.27773616 -1.2176704 1.7110602
-0.28070396 -1.2141719 1.6759156
-0.28394347 -1.211536 1.6375535
-0.28787372 -1.2114803 1.5910116
-0.20130697 -1.2189084 2.563545
-0.27198574 -1.2185794 1.7081071
-0.27489489 -1.2150908 1.6728969
-0.27797168 -1.2120358 1.6356578
-0.28170279 -1.2114791 1.5904996
-0.21389626 -1.2198424 2.5627372
-0.29622218 -1.2165241 1.6246661
-0.29945242 -1.2129444 1.587859
-0.21549252 -1.2196385 2.5632887
-0.2950297 -1.218974 1.663911
-0.29821867 -1.2154478 1.6278516
-0.30155447 -1.2122082 1.5901313
-0.21971774 -1.2196306 2.5636821
-0.30080646 -1.2189338 1.6645378
-0.30405787 -1.2154077 1.628485
-0.30746347 -1.2121857 1.5907224
-0.2179998 -1.2200186 2.5627463
-0.30209038 -1.2174464 1.6226074
-0.30538648 -1.2138714 1.5857567
-0.2286071 -1.2202102 2.5633323
-0.3169989 -1.2184433 1.6211854
-0.32045987 -1.2148736 1.5842959
-0.22679973 -1.2210598 2.5614522
-0.23649798 -1.2208649 2.5627663
-0.33226597 -1.218256 1.5758275
-0.23831564 -1.2210066 2.5626576
-0.2401229 -1.2212864 2.5622711
-0.24147086 -1.2214755 2.5620232
-0.24787238 -1.2225268 2.5605464
-0.25002632 -1.2223094 2.5612044
-0.25403282 -1.2223375 2.5615618
-0.25261658 -1.222743 2.5605969
-0.25343239 -1.2229502 2.5602639
-0.26126933 -1.2238387 2.5592985
-0.26082778 -1.2084491 2.5634234
-0.26171142 -1.2236276 2.5597718
-0.27518985 -1.2237855 2.5609362
-0.27472484 -1.2083969 2.5650575
-0.27527088 -1.2241459 2.5602179
-0.27480558 -1.208752 2.564342
-0.27623603 -1.2243748 2.559865
-0.27576905 -1.2089778 2.5639901
-0.27995801 -1.2253797 2.5582602
-0.27948448 -1.209969 2.5623903
-0.27832344 -1.2251016 2.558635
-0.27785265 -1.2096943 2.5627646
-0.27961025 -1.2252889 2.5584037
-0.27913734 -1.2098796 2.5625331
-0.28728819 -1.2257829 2.5582976
-0.28680214 -1.2103666 2.5624287
-0.28847191 -1.2260107 2.5579772
-0.28798372 -1.210591 2.5621099
-0.30030185 -1.2270957 2.5572109
-0.29979333 -1.2116611 2.5613477
-0.30206177 -1.2268559 2.5579128
-0.30155027 -1.2114244 2.562048
-0.3108072 -1.2267112 2.5593028
-0.31028095 -1.2112817 2.5634356
-0.47146958 -1.2126759 1.2976584
-0.30454242 -1.2273687 2.5571842
-0.30402669 -1.2119306 2.561321
-0.30547708 -1.2275817 2.5568705
-0.30495951 -1.21214 2.5610096
-0.3129594 -1.2131784 2.5599003
-0.47533813 -1.2140605 1.2938566
-0.31913793 -1.2129321 2.5612044
-0.48474893 -1.2138805 1.2956345
-0.3273254 -1.21314 2.5618644
-0.49716219 -1.2140325 1.296808
-0.32782614 -1.2135607 2.5610709
-0.49787629 -1.2143402 1.2959485
-0.33129254 -1.2138063 2.5610368
-0.50311351 -1.2145202 1.2960973
-0.33157411 -1.2148379 2.5589638
-0.50342667 -1.2152761 1.293792
-0.33038628 -1.2146044 2.5592806
-0.50164902 -1.2151052 1.294082
-0.33171278 -1.2150002 2.5586507
-0.50361919 -1.2153951 1.2934488
-0.34334639 -1.2151442 2.5599647
-0.52126533 -1.2155007 1.2955608
-0.33939281 -1.2153556 2.5589788
-0.51523912 -1.2156557 1.2942362
-0.34994221 -1.2167222 2.5576692
-0.35431758 -1.2164731 2.5588107
-0.35927323 -1.2166808 2.5591092
-0.35702318 -1.2170237 2.5580764
-0.36849141 -1.2173162 2.559181
-0.37040931 -1.218681 2.5566721
-0.37180835 -1.2184247 2.5574102
-0.37488684 -1.2184614 2.5578053
-0.37426066 -1.2190485 2.5565052
-0.37549335 -1.2193326 2.5561113
-0.38388509 -1.2206613 2.554688
-0.38372889 -1.2203749 2.5552514
-0.39784104 -1.2204126 2.5574307
-0.392005 -1.2209915 2.5552986
-0.3930456 -1.2212824 2.5548682
-0.40176168 -1.2224295 2.5539279
-0.44608432 -1.2254072 2.2840755
-0.40085301 -1.2220883 2.5544796
-0.40244636 -1.2226123 2.5536647
-0.44650662 -1.2246636 2.2858374
-0.40978518 -1.2228546 2.5543849
-0.45419484 -1.2236831 2.2893462
-0.40993598 -1.2230991 2.5539076
-0.45390603 -1.2226995 2.291538
-0.46030104 -1.2253939 2.2533789
-0.42470276 -1.2246449 2.5532467
-0.42398185 -1.2091471 2.5574
-0.4693965 -1.2220054 2.2957618
-0.47387668 -1.2192101 2.2699511
-0.48058906 -1.2218727 2.2312806
-0.48746738 -1.2246002 2.1916537
-0.42501575 -1.2243241 2.5539613
-0.42429444 -1.2088308 2.5581126
-0.469816 -1.2218767 2.296128
-0.47484231 -1.2204752 2.2672009
-0.48157442 -1.2231559 2.2284565
-0.42938429 -1.2245677 2.5542228
-0.42865545 -1.209071 2.5583744
-0.47458854 -1.2219744 2.2967391
-0.4792501 -1.2195146 2.2701867
-0.48604023 -1.2221819 2.2315102
-0.4276996 -1.22504 2.5529554
-0.42697349 -1.2095369 2.5571098
-0.47261733 -1.2221633 2.2959628
-0.47646156 -1.2176639 2.2739685
-0.48320252 -1.2203028 2.2354004
-0.49010938 -1.2230047 2.1958835
-0.43890455 -1.22534 2.5543222
-0.43815929 -1.2098328 2.558475
-0.48492792 -1.2222835 2.2978694
-0.48835915 -1.2165053 2.2787497
-0.49525937 -1.2191194 2.2403002
-0.50233203 -1.2218027 2.2008896
-0.43707862 -1.2269136 2.5507541
-0.43633577 -1.2113844 2.5549169
-0.48253956 -1.2229129 2.2960057
-0.48553416 -1.2160805 2.2792251
-0.49010608 -1.2130299 2.2536054
-0.49707511 -1.2156264 2.2145531
-0.50421423 -1.2182781 2.1745481
-0.51153404 -1.2209977 2.1335301
-0.51904076 -1.2237853 2.0914648
-0.43718567 -1.2265242 2.5515752
-0.43644264 -1.2110002 2.5557363
-0.48274949 -1.2227572 2.2963984
-0.48574504 -1.2159249 2.2796221
-0.49098659 -1.2145261 2.2502673
-0.49797234 -1.217136 2.211144
-0.50513268 -1.2198112 2.1710429
-0.51247501 -1.2225561 2.1299229
-0.4499658 -1.2268586 2.5532022
-0.44920093 -1.2113299 2.5573614
-0.49678043 -1.2228907 2.2986362
-0.49986339 -1.2160585 2.2818718
-0.50466913 -1.2132456 2.2557395
-0.51184416 -1.21584 2.2167234
-0.51919675 -1.2184954 2.1767421
-0.52673471 -1.221217 2.1357527
-0.45007181 -1.2271476 2.5526257
-0.44930661 -1.211615 2.5567865
-0.49682736 -1.2230064 2.2983809
-0.49991083 -1.216174 2.2816138
-0.50430882 -1.2123795 2.2576988
-0.51137471 -1.2147249 2.2192762
-0.51871455 -1.2173638 2.179364
-0.5262394 -1.2200687 2.1384459
-0.53395629 -1.2228411 2.0964837
-0.4459357 -1.2274226 2.5513017
-0.44517735 -1.2118859 2.5554659
-0.49219552 -1.2231163 2.2972825
-0.49525046 -1.2162838 2.2805073
-0.49937394 -1.2119223 2.2578645
-0.50612116 -1.2136685 2.2208145
-0.51338148 -1.2162952 2.1809471
-0.52082187 -1.2189813 2.1400909
-0.52845335 -1.2217375 2.0981855
-0.45442757 -1.213357 2.5541008
-0.50205809 -1.2237122 2.2977355
-0.50517559 -1.2168796 2.2809563
-0.50891495 -1.2114049 2.2608294
-0.51504815 -1.2114029 2.2278183
-0.52143151 -1.2116895 2.1934607
-0.52847862 -1.2131946 2.1555305
-0.53618562 -1.2158546 2.1140485
-0.54409206 -1.2185842 2.0714931
-0.5522064 -1.2213867 2.0278187
-0.45363861 -1.213043 2.5546091
-0.50126404 -1.223585 2.2978787
-0.50437635 -1.2167525 2.2811015
-0.50816327 -1.2114058 2.2606878
-0.51428735 -1.2114037 2.227675
-0.52088863 -1.2122194 2.1920903
-0.52822727 -1.2144122 2.1525304
-0.5359394 -1.2170949 2.1109574
-0.54385042 -1.2198457 2.0683119
-0.55196917 -1.2226689 2.0245471
-0.4553338 -1.2135683 2.5538287
-0.50300694 -1.2237979 2.2977164
-0.50613046 -1.2169652 2.280936
-0.50984079 -1.2114042 2.2610033
-0.51598513 -1.2114023 2.2279942
-0.52225584 -1.2114006 2.1943061
-0.52912486 -1.2124717 2.1574042
-0.53679496 -1.2150253 2.1161983
-0.54470557 -1.2177422 2.0737004
-0.55282253 -1.2205285 2.0300941
-0.463101 -1.2138426 2.5547147
-0.51151812 -1.223909 2.2990606
-0.51469475 -1.2170763 2.2822871
-0.51842028 -1.2114036 2.2626157
-0.52466792 -1.2114015 2.2296264
-0.53104389 -1.2113991 2.1959598
-0.53782284 -1.2120068 2.1601653
-0.54534632 -1.2139523 2.1204395
-0.55337614 -1.2166519 2.0780401
-0.56161606 -1.2194221 2.0345314
-0.57007378 -1.2222638 1.9898726
-0.46305913 -1.2141234 2.554121
-0.51140106 -1.2240225 2.2987788
-0.51457727 -1.2171899 2.282002
-0.51825315 -1.2114027 2.2625861
-0.52449733 -1.2113971 2.2296045
-0.53087276 -1.2113984 2.1959291
-0.53743958 -1.2115328 2.1612432
-0.54468012 -1.2128595 2.1229987
-0.55269402 -1.2155432 2.0806694
-0.56091595 -1.2182938 2.037241
-0.56935644 -1.2211185 1.9926585
-0.47781271 -1.2156545 2.5537615
-0.52729708 -1.2246423 2.3004184
-0.53057337 -1.2178093 2.2836449
-0.53413647 -1.2115042 2.265403
-0.54052645 -1.2113966 2.2326884
-0.54709512 -1.2113941 2.1990592
-0.55379885 -1.2113892 2.1647384
-0.5606463 -1.21139 2.1296818
-0.56763756 -1.2113868 2.093889
-0.57527244 -1.2124223 2.054801
-0.58380777 -1.2149811 2.0111032
-0.59265161 -1.2177771 1.9658256
-0.60173458 -1.2206464 1.9193238
-0.47761071 -1.2153293 2.5544016
-0.52715856 -1.2245107 2.3006926
-0.53043377 -1.2176778 2.283922
-0.53401649 -1.2114202 2.2655766
-0.540443 -1.2113975 2.2326698
-0.54701066 -1.2113951 2.1990402
-0.55371422 -1.211392 2.1647148
-0.56055963 -1.2113909 2.129663
-0.56774038 -1.2117944 2.0928938
-0.57570386 -1.2135199 2.0521171
-0.58433568 -1.2162685 2.0079181
-0.59319633 -1.2190857 1.9625472
-0.60229748 -1.2219779 1.9159448
-0.48500183 -1.215872 2.5547221
-0.53517348 -1.2247303 2.3017673
-0.53849882 -1.2178971 2.2850018
-0.54210103 -1.21156 2.26684
-0.5485608 -1.211396 2.2342713
-0.55522704 -1.2113935 2.2006614
-0.56203175 -1.2113914 2.1663532
-0.56897962 -1.2113894 2.1313236
-0.57607526 -1.2113872 2.0955489
-0.58364034 -1.2120419 2.0574076
-0.59206909 -1.2141268 2.0149114
-0.6010316 -1.2169079 1.9697243
-0.6102373 -1.2197636 1.9233111
-0.48665908 -1.2161355 2.5545006
-0.53693253 -1.2248369 2.3018725
-0.54026914 -1.2180039 2.2851059
-0.5438661 -1.2116281 2.267031
-0.55031556 -1.2113951 2.2346218
-0.55700326 -1.2113929 2.2010157
-0.56382978 -1.2113909 2.1667118
-0.57079864 -1.2113863 2.1316926
-0.57791811 -1.2113864 2.0959167
-0.58529085 -1.211593 2.0588682
-0.59345686 -1.2130914 2.0178335
-0.60243326 -1.2158555 1.9727265
-0.61165261 -1.2186933 1.9263984
-0.6211254 -1.2216088 1.8787968
-0.48999032 -1.2164298 2.5545504
-0.54052973 -1.2249562 2.3023179
-0.54388887 -1.2181228 2.285553
-0.5474906 -1.2117038 2.2675774
-0.55394816 -1.2113944 2.2353489
-0.56067997 -1.2113922 2.2017517
-0.56755155 -1.21139 2.1674571
-0.5745675 -1.2113878 2.1324418
-0.58173293 -1.2113857 2.0966804
-0.58905303 -1.2113841 2.060147
-0.59697014 -1.21227 2.0206344
-0.6058287 -1.2146895 1.976423
-0.61509079 -1.2175063 1.9301976
-0.62460822 -1.220402 1.8826979
-0.48967814 -1.2180581 2.5510833
-0.53975302 -1.2256141 2.3006554
-0.54310894 -1.2187808 2.2838719
-0.54659957 -1.2121232 2.2664151
-0.55285329 -1.2113901 2.2351398
-0.55957174 -1.2113879 2.2015402
-0.56642967 -1.2113856 2.1672432
-0.57343179 -1.2113833 2.1322253
-0.58058298 -1.2113811 2.0964618
-0.5878883 -1.2113788 2.0599272
-0.5953548 -1.2113798 2.0225866
-0.60298276 -1.2113734 1.9844385
-0.61104065 -1.2118804 1.9441406
-0.62003034 -1.2138524 1.8991823
-0.62969118 -1.2167151 1.8508679
-0.6396237 -1.2196572 1.8011945
-0.48954248 -1.2177206 2.5517619
-0.53969294 -1.2254777 2.3009555
-0.5430482 -1.2186444 2.2841759
-0.54656047 -1.2120365 2.2666106
-0.55285364 -1.211391 2.2351379
-0.55957216 -1.2113887 2.2015383
-0.56643009 -1.2113866 2.1672411
-0.57343233 -1.2113845 2.1322227
-0.58058345 -1.211382 2.0964594
-0.58788884 -1.2113798 2.0599246
-0.5953536 -1.2113774 2.0225925
-0.60298276 -1.2113734 1.9844385
-0.61133277 -1.2124599 1.9426795
-0.62071538 -1.2151935 1.8957565
-0.63039678 -1.2180785 1.847339
-0.64035177 -1.2210455 1.7975534
-0.49890935 -1.218011 2.5530457
-0.54994094 -1.2255951 2.3027558
-0.55336004 -1.2187616 2.2859864
-0.55691981 -1.2121112 2.2685273
-0.56329727 -1.2113904 2.2372484
-0.57014263 -1.2113879 2.2036746
-0.57713008 -1.2113857 2.1694038
-0.58426446 -1.2113835 2.1344125
-0.59155077 -1.2113813 2.098676
-0.5989942 -1.2113791 2.0621691
-0.60660356 -1.2113838 2.0248477
-0.61437368 -1.2113734 1.9867386
-0.62262529 -1.2119613 1.9462677
-0.63184088 -1.2140399 1.9010688
-0.64168656 -1.2169046 1.8527796
-0.65180969 -1.2198498 1.8031296
-0.49889347 -1.2188495 2.5512881
-0.55311543 -1.2191001 2.2851512
-0.55661792 -1.2123266 2.2679601
-0.56289089 -1.2113882 2.2371705
-0.56973124 -1.2113857 2.2035961
-0.57671368 -1.2113835 2.1693242
-0.58384287 -1.2113812 2.1343319
-0.591124 -1.2113791 2.0985942
-0.598562 -1.2113769 2.0620863
-0.60616225 -1.2113743 2.0247819
-0.61393124 -1.211373 1.9866498
-0.62187302 -1.2113688 1.9476693
-0.63018733 -1.2117349 1.90686
-0.63945657 -1.2135491 1.861364
-0.64951885 -1.2164381 1.8119755
-0.65986741 -1.2194074 1.761182
-0.50092012 -1.2191951 2.5509787
-0.55526841 -1.2192396 2.2852674
-0.55876166 -1.2124157 2.2681885
-0.56501681 -1.2113873 2.237607
-0.57188302 -1.2113848 2.2040374
-0.57889187 -1.2113826 2.1697712
-0.58604813 -1.2113805 2.134784
-0.59335655 -1.211378 2.0990527
-0.60082263 -1.2113757 2.0625508
-0.60845166 -1.2113733 2.0252519
-0.61624938 -1.2113708 1.9871284
-0.62422192 -1.2113682 1.9481505
-0.63237494 -1.2113651 1.9082898
-0.64124775 -1.2123685 1.8649102
